# .PCD v0.7 - Point Cloud Data file format
VERSION 0.7
FIELDS x y z
SIZE 4 4 4
TYPE F F F
COUNT 1 1 1
WIDTH 1950
HEIGHT 1
VIEWPOINT 0 0 0 1 0 0 0
POINTS 1950
DATA ascii
27.15 -0.75 21.15
27.450001 -0.75 21.15
26.549999 -0.44999999 21.15
26.85 -0.44999999 21.15
26.549999 -0.15000001 21.15
26.85 -0.15000001 21.15
27.15 -0.44999999 21.15
27.450001 -0.44999999 21.15
27.15 -0.15000001 21.15
27.450001 -0.15000001 21.15
27.75 -1.05 20.85
28.049999 -1.05 20.85
27.75 -0.75 20.85
28.049999 -0.75 20.85
28.35 -0.75 20.85
28.65 -0.75 20.85
27.75 -0.44999999 20.85
28.049999 -0.15000001 20.85
28.35 -0.44999999 20.85
28.65 -0.44999999 20.85
28.35 -0.15000001 20.85
28.65 -0.15000001 20.85
27.75 -1.05 21.15
28.049999 -1.05 21.15
27.75 -0.75 21.15
28.049999 -0.75 21.15
28.049999 -1.05 21.450001
28.35 -1.05 21.15
28.35 -0.75 21.15
28.65 -0.75 21.15
28.35 -1.05 21.450001
28.35 -0.75 21.450001
28.65 -0.75 21.450001
27.75 -0.44999999 21.15
28.049999 -0.44999999 21.15
27.75 -0.15000001 21.15
28.049999 -0.15000001 21.15
28.35 -0.44999999 21.15
28.65 -0.44999999 21.15
28.35 -0.15000001 21.15
28.65 -0.15000001 21.15
28.35 -0.44999999 21.450001
28.65 -0.44999999 21.450001
28.35 -0.15000001 21.450001
28.65 -0.15000001 21.450001
28.049999 -4.6500001 21.75
28.049999 -4.3499999 21.75
28.049999 -4.6500001 22.049999
28.049999 -4.3499999 22.049999
28.35 -4.6500001 21.75
28.35 -4.3499999 21.75
28.35 -4.6500001 22.049999
28.35 -4.3499999 22.049999
28.049999 -4.0500002 21.75
28.049999 -3.75 21.75
28.049999 -4.0500002 22.049999
28.049999 -3.75 22.049999
28.35 -3.75 21.75
28.35 -4.0500002 22.049999
28.35 -3.75 22.049999
28.049999 -4.3499999 22.35
28.35 -4.6500001 22.35
28.35 -4.3499999 22.35
28.35 -4.6500001 22.65
28.65 -4.6500001 22.65
28.35 -4.3499999 22.65
28.049999 -4.0500002 22.35
28.049999 -3.75 22.35
28.35 -3.75 22.35
28.35 -4.0500002 22.65
28.65 -4.0500002 22.65
28.35 -3.75 22.65
28.049999 -3.45 21.75
28.049999 -3.1500001 21.75
28.049999 -3.45 22.049999
28.049999 -3.1500001 22.049999
28.35 -3.45 21.75
28.35 -3.1500001 21.75
28.65 -3.1500001 21.75
28.35 -3.45 22.049999
28.049999 -2.8499999 21.75
28.049999 -2.8499999 22.049999
28.049999 -2.55 22.049999
28.35 -2.8499999 21.75
28.65 -2.8499999 21.75
28.35 -2.55 21.75
28.65 -2.55 21.75
28.35 -2.8499999 22.049999
28.35 -2.55 22.049999
28.65 -2.55 22.049999
28.049999 -3.45 22.35
28.35 -3.45 22.35
28.35 -3.1500001 22.35
28.35 -3.45 22.65
28.35 -3.1500001 22.65
28.65 -3.1500001 22.65
28.049999 -2.8499999 22.35
28.049999 -2.55 22.35
28.35 -2.8499999 22.35
28.35 -2.55 22.35
28.35 -2.8499999 22.65
28.65 -2.8499999 22.65
28.35 -2.55 22.65
28.65 -2.55 22.65
28.35 -4.6500001 22.950001
28.65 -4.6500001 22.950001
28.65 -4.3499999 22.950001
28.35 -4.6500001 23.25
28.65 -4.6500001 23.25
28.35 -4.3499999 23.25
28.65 -4.3499999 23.25
28.049999 -3.75 22.950001
28.65 -4.0500002 22.950001
28.35 -3.75 22.950001
28.65 -3.75 22.950001
28.65 -4.0500002 23.25
28.65 -3.75 23.25
28.65 -4.6500001 23.549999
28.65 -4.3499999 23.549999
28.65 -4.6500001 23.85
28.65 -4.3499999 23.85
28.65 -4.0500002 23.549999
28.65 -3.75 23.549999
28.35 -3.75 23.85
28.35 -3.45 22.950001
28.65 -3.45 22.950001
28.65 -3.1500001 22.950001
28.35 -3.45 23.25
28.65 -3.45 23.25
28.65 -3.1500001 23.25
28.35 -2.8499999 22.950001
28.65 -2.8499999 22.950001
28.65 -2.55 22.950001
28.65 -2.8499999 23.25
28.65 -2.55 23.25
28.65 -3.45 23.549999
28.35 -3.1500001 23.549999
28.65 -3.1500001 23.549999
28.65 -3.45 23.85
28.65 -3.1500001 23.85
28.65 -2.8499999 23.549999
28.65 -2.55 23.549999
28.65 -2.55 23.85
28.049999 -1.95 21.75
27.75 -2.25 22.049999
28.049999 -2.25 22.049999
28.35 -2.25 21.75
28.35 -1.95 21.75
28.35 -2.25 22.049999
28.65 -2.25 22.049999
28.35 -1.95 22.049999
28.65 -1.95 22.049999
28.049999 -1.35 21.75
28.35 -1.65 21.75
28.35 -1.35 21.75
28.35 -1.65 22.049999
28.65 -1.65 22.049999
28.35 -1.35 22.049999
28.65 -1.35 22.049999
28.049999 -2.25 22.35
28.049999 -1.95 22.35
28.35 -2.25 22.35
28.35 -1.95 22.35
28.35 -2.25 22.65
28.65 -2.25 22.65
28.35 -1.95 22.65
28.65 -1.95 22.65
28.049999 -1.65 22.35
28.35 -1.65 22.35
28.35 -1.35 22.35
28.35 -1.65 22.65
28.65 -1.65 22.65
28.35 -1.35 22.65
28.65 -1.35 22.65
28.049999 -1.05 21.75
28.35 -1.05 21.75
28.65 -1.05 21.75
28.35 -0.75 21.75
28.65 -0.75 21.75
28.35 -1.05 22.049999
28.65 -1.05 22.049999
28.35 -0.75 22.049999
28.65 -0.75 22.049999
28.65 -0.44999999 21.75
28.65 -0.15000001 21.75
28.65 -0.44999999 22.049999
28.65 -0.15000001 22.049999
28.35 -1.05 22.35
28.65 -1.05 22.35
28.65 -0.75 22.35
28.35 -1.05 22.65
28.65 -1.05 22.65
28.65 -0.75 22.65
28.65 -0.44999999 22.35
28.65 -0.15000001 22.35
28.65 -0.44999999 22.65
28.65 -0.15000001 22.65
28.35 -2.25 22.950001
28.65 -2.25 22.950001
28.35 -1.95 22.950001
28.65 -1.95 22.950001
28.65 -2.25 23.25
28.65 -1.95 23.25
28.35 -1.65 22.950001
28.65 -1.65 22.950001
28.65 -1.35 22.950001
28.65 -1.65 23.25
28.65 -1.35 23.25
28.65 -2.25 23.549999
28.65 -1.95 23.549999
28.65 -2.25 23.85
28.65 -1.65 23.549999
28.65 -1.35 23.549999
28.65 -1.65 23.85
28.65 -1.35 23.85
28.65 -1.05 22.950001
28.35 -0.75 22.950001
28.65 -0.75 22.950001
28.65 -1.05 23.25
28.65 -0.75 23.25
28.65 -0.44999999 22.950001
28.35 -0.15000001 22.950001
28.65 -0.15000001 22.950001
28.65 -0.44999999 23.25
28.65 -0.15000001 23.25
28.65 -1.05 23.549999
28.65 -0.75 23.549999
28.65 -1.05 23.85
28.65 -0.44999999 23.549999
28.65 -0.15000001 23.549999
28.65 -0.44999999 23.85
28.65 -9.1499996 24.15
28.65 -9.1499996 24.450001
28.65 -8.8500004 24.15
28.65 -8.5500002 24.15
28.65 -8.8500004 24.450001
28.65 -8.5500002 24.450001
28.65 -9.4499998 24.75
28.65 -9.1499996 24.75
28.65 -8.8500004 24.75
28.65 -8.5500002 24.75
28.65 -8.8500004 25.049999
28.65 -8.25 24.450001
28.65 -7.9499998 24.450001
28.65 -7.6500001 24.450001
28.65 -7.3499999 24.450001
28.65 -7.9499998 24.75
28.65 -8.25 25.049999
28.65 -7.9499998 25.049999
28.65 -7.3499999 24.75
28.65 -7.3499999 25.049999
28.65 -9.4499998 25.35
28.65 -9.1499996 25.65
28.65 -8.8500004 25.35
28.65 -8.5500002 25.35
28.65 -8.8500004 25.65
28.65 -8.5500002 25.65
28.65 -9.1499996 25.950001
28.65 -8.8500004 25.950001
28.65 -8.5500002 25.950001
28.65 -8.25 25.35
28.65 -8.25 25.65
28.65 -7.9499998 25.65
28.65 -7.6500001 25.35
28.65 -7.3499999 25.35
28.65 -7.6500001 25.65
28.65 -7.3499999 25.65
28.65 -7.6500001 25.950001
28.65 -6.75 24.15
28.65 -7.0500002 24.450001
28.65 -6.75 24.450001
28.65 -6.1500001 24.15
28.65 -6.4499998 24.450001
28.65 -6.1500001 24.450001
28.65 -7.0500002 24.75
28.65 -7.0500002 25.049999
28.65 -6.4499998 24.75
28.65 -6.1500001 24.75
28.65 -5.8499999 24.450001
28.65 -5.5500002 24.450001
28.65 -5.25 24.450001
28.65 -4.9499998 24.450001
28.65 -5.8499999 24.75
28.65 -5.5500002 24.75
28.65 -5.8499999 25.049999
28.65 -5.5500002 25.049999
28.65 -5.25 24.75
28.65 -4.9499998 24.75
28.65 -5.25 25.049999
28.65 -4.9499998 25.049999
28.65 -7.0500002 25.35
28.65 -6.75 25.35
28.65 -7.0500002 25.65
28.65 -6.75 25.65
28.65 -6.4499998 25.35
28.65 -6.1500001 25.35
28.65 -6.4499998 25.65
28.65 -7.0500002 25.950001
28.65 -6.75 25.950001
28.65 -6.1500001 25.950001
28.65 -5.8499999 25.35
28.65 -5.5500002 25.35
28.65 -5.8499999 25.65
28.65 -5.5500002 25.65
28.65 -5.25 25.35
28.65 -4.9499998 25.65
28.65 -5.8499999 25.950001
28.65 -5.5500002 25.950001
28.65 -4.6500001 24.450001
28.65 -4.0500002 24.450001
28.65 -3.75 24.450001
28.65 -4.6500001 24.75
28.65 -4.3499999 24.75
28.65 -4.6500001 25.049999
28.65 -4.0500002 24.75
28.65 -4.0500002 25.049999
28.65 -3.75 25.049999
28.65 -3.1500001 24.15
28.65 -3.45 24.450001
28.65 -3.1500001 24.450001
28.65 -2.8499999 24.15
28.65 -2.55 24.15
28.65 -2.8499999 24.450001
28.65 -2.55 24.450001
28.65 -3.45 24.75
28.65 -3.1500001 24.75
28.65 -3.45 25.049999
28.65 -3.1500001 25.049999
28.65 -2.8499999 24.75
28.65 -2.55 24.75
28.65 -2.8499999 25.049999
28.65 -2.55 25.049999
28.65 -4.6500001 25.35
28.65 -4.6500001 25.65
28.65 -4.0500002 25.35
28.65 -4.0500002 25.65
28.65 -3.75 25.65
28.65 -4.6500001 25.950001
28.65 -3.45 25.35
28.65 -3.1500001 25.35
28.65 -3.45 25.65
28.65 -3.1500001 25.65
28.35 -2.8499999 25.35
28.65 -2.8499999 25.35
28.65 -2.55 25.35
28.65 -2.8499999 25.65
28.65 -2.55 25.65
28.65 -2.55 25.950001
28.35 -2.25 24.450001
28.65 -2.25 24.450001
28.65 -1.95 24.450001
28.65 -1.65 24.450001
28.35 -1.35 24.450001
28.65 -1.35 24.450001
28.65 -2.25 24.75
28.65 -1.95 24.75
28.65 -2.25 25.049999
28.65 -1.95 25.049999
28.65 -1.65 24.75
28.65 -1.35 24.75
28.65 -1.65 25.049999
28.65 -1.35 25.049999
28.65 -0.75 24.450001
28.65 -0.15000001 24.450001
28.65 -1.05 25.049999
28.65 -2.25 25.35
28.65 -1.95 25.35
28.65 -2.25 25.65
28.65 -1.95 25.65
28.65 -1.65 25.35
28.65 -1.35 25.35
28.65 -1.65 25.65
28.65 -1.35 25.65
28.65 -1.05 25.35
28.65 -0.75 25.35
28.65 -1.05 25.65
28.65 -0.75 25.65
28.65 -0.44999999 25.35
28.65 -0.15000001 25.35
28.65 -0.44999999 25.65
28.65 -0.15000001 25.65
28.950001 -8.8500004 19.35
28.950001 -8.8500004 19.65
28.950001 -8.8500004 20.25
28.950001 -8.8500004 20.549999
28.950001 -8.8500004 20.85
28.950001 -9.4499998 21.450001
28.950001 -9.1499996 21.450001
28.950001 -8.8500004 21.15
28.950001 -8.8500004 21.450001
28.950001 -8.5500002 21.450001
28.950001 -8.8500004 21.75
28.950001 -9.4499998 22.950001
28.950001 -9.1499996 22.950001
28.950001 -9.4499998 23.25
28.950001 -9.1499996 23.25
28.950001 -8.8500004 23.25
28.950001 -8.5500002 23.25
28.950001 -9.4499998 23.549999
28.950001 -9.1499996 23.549999
28.950001 -9.4499998 23.85
28.950001 -9.1499996 23.85
28.950001 -8.8500004 23.549999
28.950001 -8.5500002 23.549999
28.950001 -8.8500004 23.85
28.950001 -8.5500002 23.85
28.950001 -8.25 23.25
28.950001 -7.9499998 23.25
28.950001 -7.6500001 22.950001
28.950001 -7.3499999 22.950001
28.950001 -7.6500001 23.25
28.950001 -7.3499999 23.25
28.950001 -8.25 23.549999
28.950001 -7.9499998 23.549999
28.950001 -8.25 23.85
28.950001 -7.9499998 23.85
28.950001 -7.6500001 23.549999
28.950001 -7.3499999 23.549999
28.950001 -7.6500001 23.85
28.950001 -7.3499999 23.85
28.950001 -7.0500002 22.950001
28.950001 -7.0500002 23.25
28.950001 -6.75 23.25
28.950001 -6.1500001 22.950001
28.950001 -6.4499998 23.25
28.950001 -6.1500001 23.25
28.950001 -7.0500002 23.549999
28.950001 -6.75 23.549999
28.950001 -7.0500002 23.85
28.950001 -6.75 23.85
28.950001 -6.4499998 23.549999
28.950001 -6.1500001 23.549999
28.950001 -6.4499998 23.85
28.950001 -6.1500001 23.85
28.950001 -5.8499999 23.25
28.950001 -5.5500002 23.25
28.950001 -5.25 22.950001
28.950001 -4.9499998 22.950001
28.950001 -5.25 23.25
28.950001 -4.9499998 23.25
28.950001 -5.8499999 23.549999
28.950001 -5.5500002 23.549999
28.950001 -5.8499999 23.85
28.950001 -5.5500002 23.85
28.950001 -5.25 23.549999
28.950001 -4.9499998 23.549999
28.950001 -5.25 23.85
28.950001 -4.9499998 23.85
28.950001 -0.75 20.85
28.950001 -0.44999999 20.85
28.950001 -0.15000001 20.85
28.950001 -0.75 21.15
28.950001 -0.44999999 21.15
28.950001 -0.15000001 21.15
28.950001 -4.3499999 22.950001
28.950001 -4.6500001 23.25
28.950001 -4.3499999 23.25
28.950001 -4.0500002 22.950001
28.950001 -4.0500002 23.25
28.950001 -3.75 23.25
28.950001 -4.6500001 23.549999
28.950001 -4.3499999 23.549999
28.950001 -4.6500001 23.85
28.950001 -4.3499999 23.85
28.950001 -4.0500002 23.549999
28.950001 -3.75 23.549999
28.950001 -4.0500002 23.85
28.950001 -3.75 23.85
28.950001 -3.45 22.950001
28.950001 -3.1500001 22.950001
28.950001 -3.45 23.25
28.950001 -3.1500001 23.25
28.950001 -2.8499999 22.950001
28.950001 -2.55 22.950001
28.950001 -2.8499999 23.25
28.950001 -2.55 23.25
28.950001 -3.45 23.549999
28.950001 -3.1500001 23.549999
28.950001 -3.45 23.85
28.950001 -3.1500001 23.85
28.950001 -2.8499999 23.549999
28.950001 -2.55 23.549999
28.950001 -2.8499999 23.85
28.950001 -2.55 23.85
28.950001 -0.75 21.75
28.950001 -1.05 22.049999
28.950001 -0.75 22.049999
28.950001 -0.44999999 22.049999
28.950001 -0.15000001 22.049999
28.950001 -0.75 22.35
28.950001 -1.05 22.65
28.950001 -0.75 22.65
28.950001 -0.44999999 22.35
28.950001 -0.15000001 22.35
28.950001 -0.44999999 22.65
28.950001 -0.15000001 22.65
28.950001 -2.25 22.950001
28.950001 -1.95 22.950001
28.950001 -2.25 23.25
28.950001 -1.95 23.25
28.950001 -1.65 22.950001
28.950001 -1.35 22.950001
28.950001 -1.65 23.25
28.950001 -1.35 23.25
28.950001 -2.25 23.549999
28.950001 -1.95 23.549999
28.950001 -2.25 23.85
28.950001 -1.95 23.85
28.950001 -1.65 23.549999
28.950001 -1.35 23.549999
28.950001 -1.65 23.85
28.950001 -1.35 23.85
28.950001 -1.05 22.950001
28.950001 -0.75 22.950001
28.950001 -1.05 23.25
28.950001 -0.75 23.25
28.950001 -0.44999999 22.950001
28.950001 -0.15000001 22.950001
28.950001 -0.44999999 23.25
28.950001 -0.15000001 23.25
28.950001 -1.05 23.549999
28.950001 -0.75 23.549999
28.950001 -0.75 23.85
28.950001 -0.44999999 23.549999
28.950001 -0.15000001 23.549999
28.950001 -0.44999999 23.85
28.950001 -0.15000001 23.85
28.950001 -9.4499998 24.15
28.950001 -9.1499996 24.15
28.950001 -9.4499998 24.450001
28.950001 -9.1499996 24.450001
28.950001 -8.8500004 24.15
28.950001 -8.5500002 24.15
28.950001 -8.8500004 24.450001
28.950001 -8.5500002 24.450001
28.950001 -9.4499998 24.75
28.950001 -9.1499996 24.75
28.950001 -9.4499998 25.049999
28.950001 -9.1499996 25.049999
28.950001 -8.8500004 24.75
28.950001 -8.5500002 24.75
28.950001 -8.8500004 25.049999
28.950001 -8.5500002 25.049999
28.950001 -8.25 24.15
28.950001 -7.9499998 24.15
28.950001 -8.25 24.450001
28.950001 -7.9499998 24.450001
28.950001 -7.6500001 24.15
28.950001 -7.3499999 24.15
28.950001 -7.6500001 24.450001
28.950001 -7.3499999 24.450001
28.950001 -8.25 24.75
28.950001 -7.9499998 24.75
28.950001 -8.25 25.049999
28.950001 -7.9499998 25.049999
28.950001 -7.6500001 24.75
28.950001 -7.3499999 24.75
28.950001 -7.6500001 25.049999
28.950001 -7.3499999 25.049999
28.950001 -9.4499998 25.35
28.950001 -9.1499996 25.35
28.950001 -9.4499998 25.65
28.950001 -9.1499996 25.65
28.950001 -8.8500004 25.35
28.950001 -8.5500002 25.35
28.950001 -8.8500004 25.65
28.950001 -8.5500002 25.65
28.950001 -9.4499998 25.950001
28.950001 -9.1499996 25.950001
28.950001 -9.4499998 26.25
28.950001 -9.1499996 26.25
29.25 -9.1499996 26.25
29.549999 -9.1499996 26.25
28.950001 -8.8500004 25.950001
28.950001 -8.5500002 25.950001
28.950001 -8.8500004 26.25
28.950001 -8.5500002 26.25
29.25 -8.5500002 26.25
28.950001 -8.25 25.35
28.950001 -7.9499998 25.35
28.950001 -8.25 25.65
28.950001 -7.9499998 25.65
28.950001 -7.6500001 25.35
28.950001 -7.3499999 25.35
28.950001 -7.6500001 25.65
28.950001 -7.3499999 25.65
28.950001 -8.25 25.950001
28.950001 -7.9499998 25.950001
28.950001 -8.25 26.25
29.25 -8.25 26.25
28.950001 -7.9499998 26.25
29.549999 -8.25 26.25
28.950001 -7.6500001 25.950001
28.950001 -7.3499999 25.950001
28.950001 -7.6500001 26.25
28.950001 -7.3499999 26.25
29.25 -7.3499999 26.25
29.549999 -7.3499999 26.25
28.950001 -7.0500002 24.15
28.950001 -6.75 24.15
28.950001 -7.0500002 24.450001
28.950001 -6.75 24.450001
28.950001 -6.4499998 24.15
28.950001 -6.1500001 24.15
29.25 -6.1500001 24.15
28.950001 -6.4499998 24.450001
28.950001 -6.1500001 24.450001
28.950001 -7.0500002 24.75
28.950001 -6.75 24.75
28.950001 -7.0500002 25.049999
28.950001 -6.75 25.049999
28.950001 -6.4499998 24.75
28.950001 -6.1500001 24.75
28.950001 -6.4499998 25.049999
28.950001 -6.1500001 25.049999
28.950001 -5.8499999 24.15
28.950001 -5.5500002 24.15
28.950001 -5.8499999 24.450001
28.950001 -5.5500002 24.450001
28.950001 -5.25 24.15
28.950001 -4.9499998 24.15
28.950001 -5.25 24.450001
28.950001 -4.9499998 24.450001
28.950001 -5.8499999 24.75
28.950001 -5.5500002 24.75
28.950001 -5.8499999 25.049999
28.950001 -5.5500002 25.049999
28.950001 -5.25 24.75
28.950001 -4.9499998 24.75
28.950001 -5.25 25.049999
28.950001 -4.9499998 25.049999
28.950001 -7.0500002 25.35
28.950001 -6.75 25.35
28.950001 -6.75 25.65
28.950001 -6.4499998 25.35
28.950001 -6.1500001 25.35
28.950001 -6.4499998 25.65
28.950001 -6.1500001 25.65
28.950001 -7.0500002 25.950001
28.950001 -6.75 25.950001
28.950001 -7.0500002 26.25
29.25 -7.0500002 26.25
28.950001 -6.75 26.25
28.950001 -6.4499998 25.950001
28.950001 -6.1500001 25.950001
28.950001 -6.4499998 26.25
29.25 -6.4499998 26.25
28.950001 -6.1500001 26.25
29.25 -6.1500001 26.25
28.950001 -5.8499999 25.35
28.950001 -5.5500002 25.35
28.950001 -5.8499999 25.65
28.950001 -5.5500002 25.65
28.950001 -5.25 25.35
28.950001 -4.9499998 25.35
28.950001 -5.25 25.65
28.950001 -4.9499998 25.65
28.950001 -5.8499999 25.950001
28.950001 -5.5500002 25.950001
28.950001 -5.8499999 26.25
28.950001 -5.5500002 26.25
29.25 -5.5500002 26.25
29.549999 -5.5500002 26.25
28.950001 -5.25 25.950001
28.950001 -5.25 26.25
29.25 -5.25 26.25
28.950001 -4.9499998 26.25
29.25 -4.9499998 26.25
28.950001 -9.4499998 26.549999
29.25 -9.4499998 26.549999
28.950001 -9.4499998 26.85
29.25 -9.4499998 26.85
29.549999 -9.4499998 26.549999
29.549999 -9.1499996 26.549999
29.549999 -9.4499998 26.85
29.85 -9.4499998 26.85
29.549999 -9.1499996 26.85
29.85 -9.1499996 26.85
28.950001 -8.8500004 26.549999
28.950001 -8.5500002 26.549999
29.25 -8.5500002 26.549999
29.25 -8.8500004 26.85
29.25 -8.5500002 26.85
29.549999 -8.5500002 26.549999
29.549999 -8.8500004 26.85
29.85 -8.8500004 26.85
29.549999 -8.5500002 26.85
29.85 -8.5500002 26.85
29.85 -8.8500004 27.15
30.450001 -9.1499996 26.549999
30.15 -9.4499998 26.85
30.15 -9.1499996 26.85
30.15 -8.8500004 26.85
30.15 -8.5500002 26.85
30.15 -9.4499998 27.15
30.15 -9.1499996 27.15
30.15 -9.4499998 27.450001
30.15 -9.1499996 27.450001
30.15 -8.8500004 27.15
30.15 -8.5500002 27.15
30.15 -8.8500004 27.450001
30.450001 -8.8500004 27.450001
30.15 -8.5500002 27.450001
30.450001 -8.5500002 27.450001
28.950001 -8.25 26.549999
29.25 -8.25 26.549999
28.950001 -7.9499998 26.549999
29.25 -7.9499998 26.549999
29.25 -7.9499998 26.85
29.549999 -8.25 26.549999
29.549999 -7.9499998 26.549999
29.549999 -8.25 26.85
29.85 -8.25 26.85
29.549999 -7.9499998 26.85
29.85 -7.9499998 26.85
28.950001 -7.6500001 26.549999
29.25 -7.6500001 26.549999
29.25 -7.3499999 26.549999
29.25 -7.6500001 26.85
29.549999 -7.3499999 26.549999
29.549999 -7.6500001 26.85
29.85 -7.6500001 26.85
29.549999 -7.3499999 26.85
29.85 -7.3499999 26.85
30.15 -8.25 26.85
30.15 -7.9499998 26.85
30.15 -7.6500001 26.85
30.15 -7.3499999 26.85
30.15 -8.25 27.15
30.15 -7.9499998 27.15
30.15 -8.25 27.450001
30.15 -7.9499998 27.450001
30.15 -7.6500001 27.15
30.15 -7.3499999 27.15
30.15 -7.6500001 27.450001
30.450001 -7.6500001 27.450001
30.15 -7.3499999 27.450001
30.450001 -7.3499999 27.450001
29.85 -9.4499998 28.65
29.85 -9.1499996 28.65
29.85 -8.8500004 28.65
29.85 -8.5500002 28.65
30.15 -9.4499998 27.75
30.450001 -9.4499998 27.75
30.15 -9.1499996 27.75
30.450001 -9.1499996 27.75
30.15 -9.4499998 28.049999
30.450001 -9.4499998 28.049999
30.15 -9.1499996 28.049999
30.450001 -9.1499996 28.049999
30.15 -8.8500004 27.75
30.450001 -8.8500004 27.75
30.15 -8.5500002 27.75
30.450001 -8.5500002 27.75
30.15 -8.8500004 28.049999
30.450001 -8.8500004 28.049999
30.15 -8.5500002 28.049999
30.450001 -8.5500002 28.049999
30.15 -9.4499998 28.35
30.450001 -9.4499998 28.35
30.15 -9.1499996 28.35
30.450001 -9.1499996 28.35
30.15 -9.4499998 28.65
30.15 -9.1499996 28.65
30.15 -8.8500004 28.35
30.450001 -8.8500004 28.35
30.15 -8.5500002 28.35
30.450001 -8.5500002 28.35
30.15 -8.8500004 28.65
30.15 -8.5500002 28.65
29.85 -8.25 28.65
29.85 -7.9499998 28.65
29.85 -7.6500001 28.65
29.85 -7.3499999 28.65
30.15 -8.25 27.75
30.450001 -8.25 27.75
30.15 -7.9499998 27.75
30.450001 -7.9499998 27.75
30.15 -8.25 28.049999
30.450001 -8.25 28.049999
30.450001 -7.9499998 28.049999
30.15 -7.6500001 27.75
30.450001 -7.6500001 27.75
30.15 -7.3499999 27.75
30.450001 -7.3499999 27.75
30.450001 -7.6500001 28.049999
30.450001 -7.3499999 28.049999
30.75 -7.6500001 28.049999
30.75 -7.3499999 28.049999
30.15 -8.25 28.35
30.450001 -8.25 28.35
30.15 -7.9499998 28.35
30.450001 -7.9499998 28.35
30.15 -8.25 28.65
30.15 -7.9499998 28.65
30.15 -7.6500001 28.35
30.450001 -7.6500001 28.35
30.15 -7.3499999 28.35
30.450001 -7.3499999 28.35
30.15 -7.6500001 28.65
30.15 -7.3499999 28.65
30.75 -7.3499999 28.35
28.950001 -7.0500002 26.549999
28.950001 -6.75 26.549999
29.25 -6.75 26.549999
29.25 -7.0500002 26.85
29.25 -6.75 26.85
29.549999 -7.0500002 26.85
29.85 -7.0500002 26.85
29.549999 -6.75 26.85
29.85 -6.75 26.85
29.25 -6.4499998 26.549999
29.25 -6.1500001 26.85
29.549999 -6.4499998 26.549999
29.549999 -6.1500001 26.549999
29.549999 -6.4499998 26.85
29.85 -6.4499998 26.85
29.549999 -6.1500001 26.85
29.85 -6.1500001 26.85
29.85 -6.1500001 27.15
30.15 -7.0500002 26.85
30.15 -6.75 26.85
30.15 -6.4499998 26.85
30.15 -6.1500001 26.85
30.15 -7.0500002 27.15
30.15 -6.75 27.15
30.15 -7.0500002 27.450001
30.450001 -7.0500002 27.450001
30.15 -6.75 27.450001
30.450001 -6.75 27.450001
30.15 -6.4499998 27.15
30.15 -6.1500001 27.15
30.15 -6.4499998 27.450001
30.450001 -6.4499998 27.450001
30.15 -6.1500001 27.450001
30.450001 -6.1500001 27.450001
28.950001 -5.8499999 26.549999
29.25 -5.8499999 26.549999
29.25 -5.5500002 26.549999
29.25 -5.8499999 26.85
29.549999 -5.5500002 26.549999
29.549999 -5.8499999 26.85
29.85 -5.8499999 26.85
29.549999 -5.5500002 26.85
29.85 -5.5500002 26.85
29.25 -5.25 26.549999
28.950001 -4.9499998 26.549999
29.25 -4.9499998 26.549999
29.25 -4.9499998 26.85
29.549999 -5.25 26.549999
29.549999 -5.25 26.85
29.549999 -4.9499998 26.85
29.85 -4.9499998 26.85
30.15 -5.8499999 26.85
30.15 -5.5500002 26.85
30.15 -5.25 26.85
30.15 -4.9499998 26.85
30.15 -5.8499999 27.15
30.15 -5.5500002 27.15
30.15 -5.8499999 27.450001
30.450001 -5.8499999 27.450001
30.15 -5.5500002 27.450001
30.450001 -5.5500002 27.450001
30.15 -5.25 27.15
30.15 -4.9499998 27.15
30.15 -5.25 27.450001
30.450001 -5.25 27.450001
30.15 -4.9499998 27.450001
30.450001 -4.9499998 27.450001
29.549999 -7.0500002 28.65
29.85 -7.0500002 28.65
29.549999 -6.75 28.65
29.85 -6.75 28.65
29.25 -6.1500001 28.65
29.549999 -6.4499998 28.65
29.85 -6.4499998 28.65
29.549999 -6.1500001 28.65
30.15 -7.0500002 27.75
30.450001 -7.0500002 27.75
30.15 -6.75 27.75
30.450001 -6.75 27.75
30.450001 -7.0500002 28.049999
30.450001 -6.75 28.049999
30.75 -7.0500002 28.049999
30.15 -6.4499998 27.75
30.450001 -6.4499998 27.75
30.450001 -6.1500001 27.75
30.450001 -6.4499998 28.049999
30.15 -6.1500001 28.049999
30.450001 -6.1500001 28.049999
30.15 -7.0500002 28.35
30.450001 -7.0500002 28.35
30.15 -6.75 28.35
30.450001 -6.75 28.35
30.15 -7.0500002 28.65
30.15 -6.75 28.65
30.75 -7.0500002 28.35
30.15 -6.4499998 28.35
30.450001 -6.4499998 28.35
30.450001 -6.1500001 28.35
30.15 -6.4499998 28.65
29.549999 -5.8499999 28.65
29.85 -5.25 28.65
29.549999 -4.9499998 28.65
29.85 -4.9499998 28.65
30.15 -5.8499999 27.75
30.450001 -5.8499999 27.75
30.15 -5.5500002 27.75
30.450001 -5.5500002 27.75
30.15 -5.8499999 28.049999
30.450001 -5.8499999 28.049999
30.450001 -5.5500002 28.049999
30.450001 -5.25 27.75
30.15 -4.9499998 27.75
30.450001 -4.9499998 27.75
30.450001 -5.25 28.049999
30.450001 -4.9499998 28.049999
30.15 -5.8499999 28.35
30.450001 -5.8499999 28.35
30.15 -5.5500002 28.35
30.450001 -5.5500002 28.35
30.15 -5.8499999 28.65
30.15 -5.5500002 28.65
30.450001 -5.25 28.35
30.15 -4.9499998 28.35
30.450001 -4.9499998 28.35
30.15 -5.25 28.65
30.15 -4.9499998 28.65
30.75 -5.25 28.35
28.950001 -4.6500001 24.15
29.25 -4.6500001 24.15
28.950001 -4.3499999 24.15
28.950001 -4.6500001 24.450001
28.950001 -4.3499999 24.450001
28.950001 -4.0500002 24.15
28.950001 -3.75 24.15
28.950001 -4.0500002 24.450001
28.950001 -3.75 24.450001
28.950001 -4.6500001 24.75
28.950001 -4.3499999 24.75
28.950001 -4.6500001 25.049999
28.950001 -4.3499999 25.049999
28.950001 -4.0500002 24.75
28.950001 -3.75 24.75
28.950001 -4.0500002 25.049999
28.950001 -3.75 25.049999
28.950001 -3.45 24.15
28.950001 -3.1500001 24.15
28.950001 -3.45 24.450001
28.950001 -3.1500001 24.450001
28.950001 -2.8499999 24.15
28.950001 -2.55 24.15
28.950001 -2.8499999 24.450001
28.950001 -2.55 24.450001
28.950001 -3.45 24.75
28.950001 -3.1500001 24.75
28.950001 -3.45 25.049999
28.950001 -3.1500001 25.049999
28.950001 -2.8499999 24.75
28.950001 -2.55 24.75
28.950001 -2.8499999 25.049999
28.950001 -2.55 25.049999
28.950001 -4.6500001 25.35
28.950001 -4.3499999 25.35
28.950001 -4.6500001 25.65
28.950001 -4.3499999 25.65
28.950001 -4.0500002 25.35
28.950001 -3.75 25.35
28.950001 -3.75 25.65
28.950001 -4.6500001 25.950001
28.950001 -4.3499999 25.950001
28.950001 -4.6500001 26.25
29.25 -4.6500001 26.25
28.950001 -4.3499999 26.25
29.25 -4.3499999 26.25
28.950001 -4.0500002 25.950001
28.950001 -3.75 25.950001
28.950001 -4.0500002 26.25
29.25 -4.0500002 26.25
28.950001 -3.75 26.25
29.25 -3.75 26.25
28.950001 -3.45 25.35
28.950001 -3.1500001 25.35
28.950001 -3.45 25.65
28.950001 -3.1500001 25.65
28.950001 -2.8499999 25.35
28.950001 -2.55 25.35
28.950001 -2.8499999 25.65
28.950001 -2.55 25.65
28.950001 -3.45 25.950001
28.950001 -3.1500001 25.950001
28.950001 -3.45 26.25
29.25 -3.45 26.25
28.950001 -3.1500001 26.25
29.25 -3.1500001 26.25
28.950001 -2.55 25.950001
28.950001 -2.8499999 26.25
29.25 -2.8499999 26.25
28.950001 -2.55 26.25
29.25 -2.55 26.25
29.549999 -2.8499999 26.25
28.950001 -2.25 24.15
28.950001 -1.95 24.15
28.950001 -2.25 24.450001
28.950001 -1.95 24.450001
28.950001 -1.65 24.15
28.950001 -1.35 24.15
28.950001 -1.65 24.450001
28.950001 -1.35 24.450001
28.950001 -2.25 24.75
28.950001 -1.95 24.75
28.950001 -2.25 25.049999
28.950001 -1.95 25.049999
28.950001 -1.65 24.75
28.950001 -1.35 24.75
28.950001 -1.65 25.049999
28.950001 -1.35 25.049999
28.950001 -1.05 24.15
28.950001 -0.75 24.15
28.950001 -1.05 24.450001
28.950001 -0.75 24.450001
28.950001 -0.44999999 24.15
28.950001 -0.15000001 24.15
28.950001 -0.44999999 24.450001
28.950001 -0.15000001 24.450001
28.950001 -1.05 24.75
28.950001 -0.75 24.75
28.950001 -1.05 25.049999
28.950001 -0.75 25.049999
28.950001 -0.44999999 24.75
28.950001 -0.15000001 24.75
28.950001 -0.44999999 25.049999
28.950001 -0.15000001 25.049999
28.950001 -2.25 25.35
28.950001 -1.95 25.35
28.950001 -2.25 25.65
28.950001 -1.95 25.65
28.950001 -1.65 25.35
28.950001 -1.35 25.35
28.950001 -1.65 25.65
28.950001 -1.35 25.65
28.950001 -2.25 25.950001
28.950001 -1.95 25.950001
28.950001 -2.25 26.25
29.25 -2.25 26.25
28.950001 -1.95 26.25
29.25 -1.95 26.25
29.549999 -1.95 26.25
28.950001 -1.35 25.950001
28.950001 -1.65 26.25
29.25 -1.65 26.25
28.950001 -1.35 26.25
29.25 -1.35 26.25
29.549999 -1.65 26.25
28.950001 -1.05 25.35
28.950001 -0.75 25.35
28.950001 -1.05 25.65
28.950001 -0.75 25.65
28.950001 -0.44999999 25.35
28.950001 -0.15000001 25.35
28.950001 -0.44999999 25.65
28.950001 -0.15000001 25.65
28.950001 -1.05 25.950001
28.950001 -0.75 25.950001
28.950001 -1.05 26.25
29.25 -1.05 26.25
28.950001 -0.75 26.25
29.25 -0.75 26.25
29.549999 -0.75 26.25
28.950001 -0.44999999 25.950001
28.950001 -0.15000001 25.950001
28.950001 -0.44999999 26.25
29.25 -0.44999999 26.25
28.950001 -0.15000001 26.25
29.25 -0.15000001 26.25
29.25 -4.6500001 26.549999
29.25 -4.3499999 26.549999
29.25 -4.6500001 26.85
29.549999 -4.6500001 26.549999
29.549999 -4.3499999 26.549999
29.549999 -4.6500001 26.85
29.85 -4.6500001 26.85
29.549999 -4.3499999 26.85
29.85 -4.3499999 26.85
28.950001 -4.0500002 26.549999
29.25 -4.0500002 26.549999
29.25 -3.75 26.549999
29.25 -4.0500002 26.85
29.549999 -4.0500002 26.549999
29.549999 -3.75 26.549999
29.549999 -4.0500002 26.85
29.85 -4.0500002 26.85
29.549999 -3.75 26.85
29.85 -3.75 26.85
30.15 -4.6500001 26.85
30.15 -4.3499999 26.85
30.15 -4.0500002 26.85
30.15 -3.75 26.85
30.15 -4.6500001 27.15
30.15 -4.3499999 27.15
30.15 -4.6500001 27.450001
30.450001 -4.6500001 27.450001
30.15 -4.3499999 27.450001
30.450001 -4.3499999 27.450001
30.15 -4.0500002 27.15
30.15 -3.75 27.15
30.15 -4.0500002 27.450001
30.450001 -4.0500002 27.450001
30.15 -3.75 27.450001
30.450001 -3.75 27.450001
28.950001 -3.1500001 26.549999
29.25 -3.1500001 26.549999
29.549999 -3.45 26.549999
29.85 -3.45 26.85
29.549999 -3.1500001 26.85
29.85 -3.1500001 26.85
28.950001 -2.8499999 26.549999
29.25 -2.8499999 26.549999
29.25 -2.55 26.549999
29.549999 -2.8499999 26.549999
29.549999 -2.55 26.549999
29.85 -2.55 26.549999
29.549999 -2.8499999 26.85
29.85 -2.8499999 26.85
29.85 -2.55 26.85
30.15 -3.45 26.85
30.15 -3.1500001 26.85
30.15 -2.8499999 26.85
30.15 -2.55 26.85
30.15 -3.45 27.15
30.15 -3.1500001 27.15
30.15 -3.45 27.450001
30.450001 -3.45 27.450001
30.15 -3.1500001 27.450001
30.450001 -3.1500001 27.450001
30.15 -2.8499999 27.15
30.15 -2.55 27.15
30.15 -2.8499999 27.450001
30.450001 -2.8499999 27.450001
30.15 -2.55 27.450001
30.450001 -2.55 27.450001
29.85 -4.6500001 28.65
29.85 -4.3499999 28.65
29.549999 -4.0500002 28.65
29.85 -4.0500002 28.65
29.549999 -3.75 28.65
29.85 -3.75 28.65
30.15 -4.6500001 27.75
30.450001 -4.6500001 27.75
30.15 -4.3499999 27.75
30.450001 -4.3499999 27.75
30.450001 -4.6500001 28.049999
30.450001 -4.3499999 28.049999
30.75 -4.3499999 27.75
30.75 -4.6500001 28.049999
30.75 -4.3499999 28.049999
30.15 -4.0500002 27.75
30.450001 -4.0500002 27.75
30.15 -3.75 27.75
30.450001 -3.75 27.75
30.450001 -4.0500002 28.049999
30.450001 -3.75 28.049999
30.15 -4.6500001 28.35
30.450001 -4.6500001 28.35
30.450001 -4.3499999 28.35
30.15 -4.6500001 28.65
30.15 -4.3499999 28.65
30.75 -4.3499999 28.35
30.15 -4.0500002 28.35
30.450001 -4.0500002 28.35
30.15 -3.75 28.35
30.450001 -3.75 28.35
30.15 -4.0500002 28.65
29.85 -3.1500001 28.35
29.549999 -3.45 28.65
29.85 -3.45 28.65
29.549999 -3.1500001 28.65
29.85 -3.1500001 28.65
29.85 -2.8499999 28.65
29.85 -2.55 28.65
30.450001 -3.45 27.75
30.450001 -3.1500001 27.75
30.15 -3.45 28.049999
30.450001 -3.45 28.049999
30.450001 -3.1500001 28.049999
30.450001 -2.8499999 27.75
30.450001 -2.55 27.75
30.450001 -2.8499999 28.049999
30.450001 -2.55 28.049999
30.15 -3.45 28.35
30.450001 -3.45 28.35
30.15 -3.1500001 28.35
30.450001 -3.1500001 28.35
30.15 -2.8499999 28.35
30.450001 -2.8499999 28.35
30.15 -2.55 28.35
30.450001 -2.55 28.35
30.15 -2.55 28.65
30.75 -2.55 28.35
28.950001 -2.25 26.549999
29.25 -2.25 26.549999
29.25 -1.95 26.549999
29.549999 -2.25 26.549999
29.549999 -1.95 26.549999
29.85 -1.95 26.549999
29.549999 -2.25 26.85
29.85 -2.25 26.85
29.549999 -1.95 26.85
29.85 -1.95 26.85
29.25 -1.65 26.549999
29.25 -1.35 26.549999
29.549999 -1.65 26.549999
29.85 -1.65 26.549999
29.549999 -1.35 26.549999
29.85 -1.35 26.549999
29.85 -1.65 26.85
29.549999 -1.35 26.85
29.85 -1.35 26.85
30.15 -2.25 26.85
30.15 -1.95 26.85
30.15 -1.65 26.549999
30.15 -1.65 26.85
30.15 -1.35 26.85
30.15 -2.25 27.15
30.15 -1.95 27.15
30.15 -2.25 27.450001
30.450001 -2.25 27.450001
30.15 -1.95 27.450001
30.450001 -1.95 27.450001
30.15 -1.65 27.15
30.15 -1.35 27.15
30.15 -1.65 27.450001
30.450001 -1.65 27.450001
30.15 -1.35 27.450001
30.450001 -1.35 27.450001
29.25 -1.05 26.549999
29.549999 -1.05 26.549999
29.549999 -0.75 26.549999
29.85 -1.05 26.85
29.549999 -0.75 26.85
29.85 -0.75 26.85
29.25 -0.44999999 26.549999
28.950001 -0.15000001 26.549999
29.25 -0.15000001 26.549999
29.549999 -0.44999999 26.549999
29.549999 -0.15000001 26.549999
29.549999 -0.44999999 26.85
29.85 -0.44999999 26.85
30.15 -1.05 26.85
30.15 -0.75 26.85
30.15 -0.44999999 26.549999
30.15 -0.44999999 26.85
30.15 -0.15000001 26.85
30.15 -1.05 27.15
30.15 -0.75 27.15
30.15 -1.05 27.450001
30.450001 -1.05 27.450001
30.15 -0.75 27.450001
30.450001 -0.75 27.450001
30.15 -0.44999999 27.15
30.15 -0.15000001 27.15
30.15 -0.44999999 27.450001
30.450001 -0.44999999 27.450001
30.450001 -0.15000001 27.450001
29.25 -2.25 28.65
29.25 -1.95 28.65
29.549999 -2.25 28.65
29.85 -2.25 28.65
29.549999 -1.95 28.65
29.85 -1.95 28.65
29.549999 -1.65 28.65
29.85 -1.65 28.65
29.549999 -1.35 28.65
29.85 -1.35 28.65
30.450001 -2.25 27.75
30.15 -1.95 27.75
30.450001 -1.95 27.75
30.450001 -2.25 28.049999
30.450001 -1.95 28.049999
30.75 -1.95 28.049999
30.15 -1.65 27.75
30.450001 -1.65 27.75
30.450001 -1.35 27.75
30.450001 -1.65 28.049999
30.450001 -1.35 28.049999
30.75 -1.65 27.75
30.75 -1.65 28.049999
30.75 -1.35 28.049999
30.15 -2.25 28.35
30.450001 -2.25 28.35
30.15 -1.95 28.35
30.450001 -1.95 28.35
30.75 -2.25 28.35
30.15 -1.65 28.35
30.450001 -1.65 28.35
30.15 -1.35 28.35
30.450001 -1.35 28.35
30.75 -1.35 28.35
29.549999 -1.05 28.65
29.85 -1.05 28.65
29.549999 -0.75 28.65
29.85 -0.75 28.65
29.549999 -0.44999999 28.65
29.85 -0.44999999 28.65
29.85 -0.15000001 28.65
30.450001 -1.05 27.75
30.450001 -0.75 27.75
30.450001 -1.05 28.049999
30.450001 -0.75 28.049999
30.450001 -0.44999999 27.75
30.450001 -0.15000001 27.75
30.450001 -0.44999999 28.049999
30.450001 -0.15000001 28.049999
30.15 -1.05 28.35
30.450001 -1.05 28.35
30.15 -0.75 28.35
30.450001 -0.75 28.35
30.15 -1.05 28.65
30.15 -0.75 28.65
30.15 -0.44999999 28.35
30.450001 -0.44999999 28.35
30.15 -0.15000001 28.35
30.450001 -0.15000001 28.35
30.15 -0.44999999 28.65
30.15 -0.15000001 28.65
19.35 -19.049999 28.950001
19.65 -19.049999 28.950001
19.35 -19.049999 29.25
19.65 -19.049999 29.25
19.35 -18.75 29.25
19.65 -18.75 29.25
19.950001 -19.049999 28.950001
20.25 -19.049999 28.950001
19.950001 -18.75 28.950001
20.25 -18.75 28.950001
19.950001 -19.049999 29.25
20.25 -19.049999 29.25
19.950001 -18.75 29.25
20.25 -18.75 29.25
19.35 -19.049999 29.549999
19.65 -19.049999 29.549999
19.35 -18.75 29.549999
19.65 -18.75 29.549999
19.35 -18.75 29.85
19.65 -18.75 29.85
19.950001 -18.75 29.549999
20.25 -18.75 29.549999
19.950001 -18.75 29.85
20.25 -18.75 29.85
19.35 -18.450001 29.549999
19.65 -18.450001 29.549999
19.35 -18.450001 29.85
19.65 -18.450001 29.85
19.35 -18.15 29.85
19.950001 -18.450001 29.549999
20.25 -18.450001 29.549999
20.25 -18.15 29.549999
19.950001 -18.450001 29.85
20.25 -18.450001 29.85
20.25 -18.15 29.85
20.549999 -19.049999 28.950001
20.85 -19.049999 28.950001
20.549999 -18.75 28.950001
20.549999 -19.049999 29.25
20.85 -19.049999 29.25
20.549999 -18.75 29.25
20.85 -18.75 29.25
21.15 -19.049999 28.950001
21.450001 -19.049999 28.950001
21.15 -19.049999 29.25
21.450001 -19.049999 29.25
21.15 -18.75 29.25
21.450001 -18.75 29.25
20.85 -18.450001 29.25
21.15 -18.450001 29.25
21.15 -18.15 29.25
20.549999 -18.75 29.549999
20.85 -18.75 29.549999
20.549999 -18.75 29.85
20.85 -18.75 29.85
21.15 -19.049999 29.549999
21.450001 -19.049999 29.549999
21.15 -18.75 29.549999
21.450001 -18.75 29.549999
21.15 -18.75 29.85
20.549999 -18.450001 29.549999
20.85 -18.450001 29.549999
20.85 -18.15 29.549999
20.549999 -18.450001 29.85
20.85 -18.450001 29.85
21.15 -18.450001 29.549999
21.450001 -18.450001 29.549999
21.15 -18.15 29.549999
21.15 -18.450001 29.85
21.450001 -18.450001 29.85
19.35 -18.450001 30.15
19.65 -18.450001 30.15
19.35 -18.15 30.15
19.65 -18.15 30.15
19.35 -18.450001 30.450001
19.65 -18.450001 30.450001
19.35 -18.15 30.450001
19.65 -18.15 30.450001
19.950001 -18.450001 30.15
20.25 -18.450001 30.15
19.950001 -18.15 30.15
20.25 -18.15 30.15
19.950001 -18.15 30.450001
20.25 -18.15 30.450001
19.35 -18.15 30.75
19.65 -18.15 30.75
19.35 -18.15 31.049999
19.65 -18.15 31.049999
19.950001 -18.15 30.75
20.25 -18.15 30.75
19.950001 -18.15 31.049999
20.25 -18.15 31.049999
20.549999 -18.450001 30.15
20.85 -18.450001 30.15
20.549999 -18.15 30.15
20.85 -18.15 30.15
20.85 -18.450001 30.450001
20.549999 -18.15 30.450001
20.85 -18.15 30.450001
21.15 -18.450001 30.15
21.450001 -18.450001 30.15
21.15 -18.450001 30.450001
21.450001 -18.450001 30.450001
21.15 -18.15 30.450001
21.450001 -18.15 30.450001
20.85 -18.450001 30.75
20.549999 -18.15 30.75
20.85 -18.15 30.75
20.85 -18.450001 31.049999
20.549999 -18.15 31.049999
20.85 -18.15 31.049999
21.15 -18.450001 30.75
21.450001 -18.450001 30.75
21.15 -18.15 30.75
21.450001 -18.15 30.75
21.15 -18.450001 31.049999
21.450001 -18.450001 31.049999
21.15 -18.15 31.049999
21.450001 -18.15 31.049999
19.65 -17.85 30.450001
20.25 -17.85 30.450001
19.35 -17.85 30.75
19.65 -17.85 30.75
19.950001 -17.85 30.75
20.549999 -17.85 30.450001
21.15 -17.85 31.049999
21.75 -19.049999 28.950001
22.049999 -19.049999 28.950001
21.75 -19.049999 29.25
22.049999 -19.049999 29.25
21.75 -18.75 29.25
22.049999 -18.75 29.25
22.35 -19.049999 28.950001
22.65 -19.049999 28.950001
22.35 -19.049999 29.25
22.65 -19.049999 29.25
22.35 -18.75 29.25
22.65 -18.75 29.25
21.75 -19.049999 29.549999
21.75 -18.75 29.549999
22.049999 -18.75 29.549999
22.049999 -18.75 29.85
22.35 -18.75 29.549999
22.65 -18.75 29.549999
21.75 -18.450001 29.549999
22.049999 -18.450001 29.549999
21.75 -18.450001 29.85
22.049999 -18.450001 29.85
22.049999 -18.15 29.85
22.35 -18.450001 29.549999
22.65 -18.450001 29.549999
22.35 -18.450001 29.85
22.65 -18.450001 29.85
22.35 -18.15 29.85
22.950001 -19.049999 28.950001
23.25 -19.049999 28.950001
22.950001 -19.049999 29.25
23.25 -19.049999 29.25
22.950001 -18.75 29.25
23.25 -18.75 29.25
23.549999 -19.049999 28.950001
23.549999 -19.049999 29.25
23.85 -19.049999 29.25
22.950001 -18.15 29.25
22.950001 -18.75 29.549999
23.25 -18.75 29.549999
23.549999 -18.75 29.549999
23.85 -18.75 29.549999
22.950001 -18.450001 29.549999
23.25 -18.450001 29.549999
22.950001 -18.450001 29.85
23.25 -18.450001 29.85
23.549999 -18.450001 29.549999
23.85 -18.450001 29.549999
23.549999 -18.450001 29.85
23.85 -18.450001 29.85
23.549999 -18.15 29.85
23.85 -18.15 29.85
21.75 -18.450001 30.15
22.049999 -18.450001 30.15
22.049999 -18.15 30.15
21.75 -18.450001 30.450001
22.049999 -18.450001 30.450001
21.75 -18.15 30.450001
22.049999 -18.15 30.450001
22.35 -18.450001 30.15
22.65 -18.450001 30.15
22.35 -18.15 30.15
22.65 -18.15 30.15
22.35 -18.450001 30.450001
22.65 -18.450001 30.450001
22.35 -18.15 30.450001
22.65 -18.15 30.450001
21.75 -18.450001 30.75
22.049999 -18.450001 30.75
21.75 -18.15 30.75
22.049999 -18.15 30.75
21.75 -18.450001 31.049999
22.049999 -18.450001 31.049999
21.75 -18.15 31.049999
22.049999 -18.15 31.049999
22.35 -18.15 30.75
22.65 -18.15 30.75
22.35 -18.15 31.049999
22.65 -18.15 31.049999
22.950001 -18.450001 30.15
23.25 -18.450001 30.15
22.950001 -18.15 30.15
23.25 -18.15 30.15
22.950001 -18.450001 30.450001
23.25 -18.450001 30.450001
22.950001 -18.15 30.450001
23.25 -18.15 30.450001
23.549999 -18.450001 30.15
23.85 -18.450001 30.15
23.549999 -18.15 30.15
23.85 -18.15 30.15
23.549999 -18.450001 30.450001
23.85 -18.450001 30.450001
23.549999 -18.15 30.450001
23.85 -18.15 30.450001
22.950001 -18.15 30.75
23.25 -18.15 30.75
22.950001 -18.15 31.049999
23.25 -18.15 31.049999
23.549999 -18.15 30.75
23.85 -18.15 30.75
23.549999 -18.15 31.049999
23.85 -18.15 31.049999
22.65 -17.85 30.75
22.950001 -17.85 30.75
19.35 -18.15 31.35
19.65 -18.15 31.35
19.35 -18.15 31.65
19.65 -18.15 31.65
19.950001 -18.15 31.35
20.25 -18.15 31.35
19.950001 -18.15 31.65
20.25 -18.15 31.65
19.35 -18.15 31.950001
19.65 -18.15 31.950001
19.35 -18.15 32.25
19.65 -18.15 32.25
19.950001 -18.15 31.950001
20.25 -18.15 31.950001
19.950001 -18.15 32.25
20.25 -18.15 32.25
20.549999 -18.15 31.35
20.85 -18.15 31.35
20.549999 -18.15 31.65
20.85 -18.15 31.65
21.15 -18.450001 31.35
21.450001 -18.450001 31.35
21.15 -18.15 31.35
21.450001 -18.15 31.35
21.15 -18.450001 31.65
21.450001 -18.450001 31.65
21.15 -18.15 31.65
21.450001 -18.15 31.65
20.85 -18.450001 31.950001
20.549999 -18.15 31.950001
20.85 -18.15 31.950001
20.85 -18.450001 32.25
20.549999 -18.15 32.25
20.85 -18.15 32.25
21.15 -18.450001 31.950001
21.450001 -18.450001 31.950001
21.15 -18.15 31.950001
21.450001 -18.15 31.950001
21.15 -18.450001 32.25
21.450001 -18.450001 32.25
19.35 -17.85 31.65
20.25 -17.85 31.950001
19.35 -18.15 32.549999
19.65 -18.15 32.549999
19.35 -18.15 32.849998
19.65 -18.15 32.849998
19.950001 -18.15 32.549999
20.25 -18.15 32.549999
20.25 -18.450001 32.849998
19.950001 -18.15 32.849998
20.25 -18.15 32.849998
19.35 -18.75 33.150002
19.65 -18.75 33.150002
19.35 -19.049999 33.450001
19.65 -19.049999 33.450001
19.35 -18.75 33.450001
19.65 -18.75 33.450001
19.950001 -18.75 33.150002
20.25 -18.75 33.150002
19.950001 -19.049999 33.450001
20.25 -19.049999 33.450001
19.950001 -18.75 33.450001
20.25 -18.75 33.450001
19.35 -18.450001 33.150002
19.65 -18.450001 33.150002
20.85 -18.75 32.849998
20.85 -18.450001 32.549999
20.549999 -18.15 32.549999
20.85 -18.15 32.549999
20.85 -18.450001 32.849998
20.549999 -18.15 32.849998
20.85 -18.15 32.849998
21.15 -18.450001 32.549999
21.450001 -18.450001 32.549999
21.15 -18.15 32.549999
21.15 -18.450001 32.849998
21.450001 -18.450001 32.849998
20.549999 -18.75 33.150002
20.85 -18.75 33.150002
20.549999 -19.049999 33.450001
20.85 -19.049999 33.450001
20.549999 -18.75 33.450001
20.85 -18.75 33.450001
21.15 -18.75 33.150002
21.450001 -18.75 33.150002
21.15 -19.049999 33.450001
21.450001 -19.049999 33.450001
21.15 -18.75 33.450001
21.450001 -18.75 33.450001
20.549999 -18.450001 33.150002
20.85 -18.450001 33.150002
21.15 -18.450001 33.150002
21.75 -18.450001 31.35
22.049999 -18.450001 31.35
21.75 -18.15 31.35
22.049999 -18.15 31.35
21.75 -18.450001 31.65
22.049999 -18.450001 31.65
21.75 -18.15 31.65
22.049999 -18.15 31.65
22.35 -18.15 31.35
22.65 -18.15 31.35
22.65 -18.450001 31.65
22.35 -18.15 31.65
22.65 -18.15 31.65
21.75 -18.450001 31.950001
22.049999 -18.450001 31.950001
21.75 -18.15 31.950001
22.049999 -18.15 31.950001
21.75 -18.450001 32.25
22.049999 -18.450001 32.25
22.049999 -18.15 32.25
22.35 -18.15 31.950001
22.65 -18.15 31.950001
22.35 -18.15 32.25
22.65 -18.15 32.25
22.950001 -18.450001 31.35
23.25 -18.450001 31.35
22.950001 -18.15 31.35
23.25 -18.15 31.35
22.950001 -18.450001 31.65
23.25 -18.450001 31.65
23.549999 -18.450001 31.35
23.549999 -18.15 31.35
23.85 -18.15 31.35
23.549999 -18.450001 31.65
23.85 -18.450001 31.65
23.549999 -18.15 31.65
23.85 -18.15 31.65
22.950001 -18.450001 31.950001
23.25 -18.450001 31.950001
22.950001 -18.15 31.950001
22.950001 -18.450001 32.25
23.25 -18.450001 32.25
22.950001 -18.15 32.25
23.25 -18.15 32.25
23.549999 -18.450001 31.950001
23.549999 -18.15 31.950001
23.85 -18.15 31.950001
23.549999 -18.450001 32.25
23.549999 -18.15 32.25
23.85 -18.15 32.25
21.75 -18.450001 32.549999
22.049999 -18.450001 32.549999
21.75 -18.15 32.549999
22.049999 -18.15 32.549999
21.75 -18.450001 32.849998
22.049999 -18.450001 32.849998
22.049999 -18.15 32.849998
22.35 -18.15 32.549999
22.65 -18.15 32.549999
22.35 -18.450001 32.849998
22.65 -18.450001 32.849998
22.35 -18.15 32.849998
22.65 -18.15 32.849998
21.75 -18.75 33.150002
22.049999 -18.75 33.150002
21.75 -19.049999 33.450001
22.049999 -19.049999 33.450001
21.75 -18.75 33.450001
22.049999 -18.75 33.450001
22.35 -18.75 33.150002
22.65 -18.75 33.150002
22.35 -19.049999 33.450001
22.65 -19.049999 33.450001
22.35 -18.75 33.450001
22.65 -18.75 33.450001
21.75 -18.450001 33.150002
22.049999 -18.450001 33.150002
22.35 -18.450001 33.150002
22.950001 -18.15 32.549999
23.25 -18.15 32.549999
23.25 -18.450001 32.849998
22.950001 -18.15 32.849998
23.25 -18.15 32.849998
23.549999 -18.15 32.549999
23.85 -18.15 32.549999
23.549999 -18.450001 32.849998
23.549999 -18.15 32.849998
23.85 -18.15 32.849998
22.950001 -18.75 33.150002
23.25 -18.75 33.150002
22.950001 -19.049999 33.450001
23.25 -19.049999 33.450001
22.950001 -18.75 33.450001
23.25 -18.75 33.450001
23.549999 -18.75 33.150002
23.85 -18.75 33.150002
23.549999 -19.049999 33.450001
23.85 -19.049999 33.450001
23.549999 -18.75 33.450001
23.85 -18.75 33.450001
22.950001 -18.450001 33.150002
23.25 -18.450001 33.150002
23.549999 -18.450001 33.150002
23.85 -18.450001 33.150002
24.15 -19.049999 28.950001
24.450001 -19.049999 28.950001
24.450001 -18.75 28.950001
24.15 -19.049999 29.25
24.450001 -19.049999 29.25
24.75 -18.75 28.950001
25.049999 -18.75 28.950001
24.75 -18.75 29.25
25.049999 -18.75 29.25
24.75 -18.450001 28.950001
25.049999 -18.450001 28.950001
24.15 -19.049999 29.549999
24.15 -18.75 29.549999
24.450001 -18.75 29.549999
24.15 -18.75 29.85
24.450001 -18.75 29.85
24.75 -18.75 29.549999
25.049999 -18.75 29.549999
24.75 -18.75 29.85
24.15 -18.450001 29.549999
24.450001 -18.450001 29.549999
24.15 -18.450001 29.85
24.450001 -18.450001 29.85
24.450001 -18.15 29.85
24.75 -18.450001 29.549999
25.049999 -18.450001 29.549999
24.75 -18.450001 29.85
25.049999 -18.450001 29.85
24.75 -18.15 29.85
25.35 -19.049999 28.950001
25.65 -19.049999 28.950001
25.35 -18.75 28.950001
25.65 -18.75 28.950001
25.35 -18.75 29.25
25.65 -18.75 29.25
25.950001 -19.049999 28.950001
26.25 -19.049999 28.950001
25.950001 -19.049999 29.25
26.25 -19.049999 29.25
25.950001 -18.75 29.25
26.25 -18.75 29.25
26.25 -18.450001 29.25
25.35 -18.75 29.549999
25.65 -18.75 29.549999
25.950001 -18.75 29.549999
26.25 -18.75 29.549999
26.25 -18.75 29.85
25.35 -18.450001 29.549999
25.65 -18.450001 29.549999
25.35 -18.450001 29.85
25.65 -18.450001 29.85
25.65 -18.15 29.85
25.950001 -18.450001 29.549999
26.25 -18.450001 29.549999
25.950001 -18.450001 29.85
26.25 -18.450001 29.85
26.25 -18.15 29.85
24.450001 -17.85 29.85
24.75 -18.75 30.15
24.15 -18.450001 30.15
24.450001 -18.450001 30.15
24.15 -18.15 30.15
24.15 -18.450001 30.450001
24.450001 -18.450001 30.450001
24.15 -18.15 30.450001
24.75 -18.450001 30.15
25.049999 -18.450001 30.15
24.75 -18.450001 30.450001
25.049999 -18.450001 30.450001
24.450001 -18.450001 30.75
24.15 -18.15 30.75
24.450001 -18.15 30.75
24.15 -18.450001 31.049999
24.450001 -18.450001 31.049999
24.15 -18.15 31.049999
24.450001 -18.15 31.049999
24.75 -18.450001 30.75
25.049999 -18.450001 30.75
24.75 -18.15 30.75
25.049999 -18.15 30.75
24.75 -18.450001 31.049999
25.049999 -18.450001 31.049999
24.75 -18.15 31.049999
25.049999 -18.15 31.049999
25.35 -18.450001 30.15
25.65 -18.450001 30.15
25.65 -18.15 30.15
25.35 -18.450001 30.450001
25.65 -18.450001 30.450001
25.65 -18.15 30.450001
25.950001 -18.450001 30.15
26.25 -18.450001 30.15
25.950001 -18.15 30.15
26.25 -18.15 30.15
25.950001 -18.450001 30.450001
26.25 -18.450001 30.450001
25.950001 -18.15 30.450001
26.25 -18.15 30.450001
25.35 -18.450001 30.75
25.65 -18.450001 30.75
25.35 -18.15 30.75
25.65 -18.15 30.75
25.35 -18.450001 31.049999
25.65 -18.450001 31.049999
25.35 -18.15 31.049999
25.65 -18.15 31.049999
25.950001 -18.15 30.75
26.25 -18.15 30.75
25.950001 -18.450001 31.049999
26.25 -18.450001 31.049999
25.950001 -18.15 31.049999
26.25 -18.15 31.049999
26.549999 -19.049999 28.950001
26.85 -19.049999 28.950001
26.549999 -19.049999 29.25
26.85 -19.049999 29.25
26.549999 -18.75 29.25
26.85 -18.75 29.25
27.15 -19.049999 28.950001
27.450001 -19.049999 28.950001
27.15 -18.75 29.25
27.450001 -18.75 29.25
26.549999 -18.75 29.549999
26.85 -18.75 29.549999
27.15 -18.75 29.549999
27.450001 -18.75 29.549999
26.549999 -18.450001 29.549999
26.85 -18.450001 29.549999
26.549999 -18.450001 29.85
26.85 -18.450001 29.85
26.549999 -18.15 29.85
26.85 -18.15 29.85
27.15 -18.450001 29.549999
27.450001 -18.450001 29.549999
27.15 -18.450001 29.85
27.450001 -18.450001 29.85
27.75 -19.049999 28.950001
28.049999 -19.049999 28.950001
28.049999 -19.049999 29.25
27.75 -18.75 29.25
28.049999 -18.75 29.25
28.35 -19.049999 28.950001
28.65 -19.049999 28.950001
28.35 -18.75 28.950001
28.65 -18.75 28.950001
28.35 -19.049999 29.25
28.35 -18.75 29.25
27.75 -18.75 29.549999
28.049999 -18.75 29.549999
28.35 -18.75 29.549999
28.65 -18.75 29.549999
27.75 -18.450001 29.549999
28.049999 -18.450001 29.549999
27.75 -18.450001 29.85
28.049999 -18.450001 29.85
28.35 -18.450001 29.549999
28.65 -18.450001 29.549999
28.35 -18.450001 29.85
28.65 -18.450001 29.85
28.65 -16.950001 29.85
26.549999 -18.450001 30.15
26.85 -18.450001 30.15
26.549999 -18.15 30.15
26.85 -18.15 30.15
26.549999 -18.450001 30.450001
26.85 -18.450001 30.450001
26.549999 -18.15 30.450001
26.85 -18.15 30.450001
27.15 -18.450001 30.15
27.450001 -18.450001 30.15
27.15 -18.15 30.15
27.15 -18.450001 30.450001
27.450001 -18.450001 30.450001
27.15 -18.15 30.450001
27.450001 -18.15 30.450001
26.85 -18.450001 30.75
26.549999 -18.15 30.75
26.85 -18.15 30.75
26.549999 -18.450001 31.049999
26.85 -18.450001 31.049999
26.549999 -18.15 31.049999
26.85 -18.15 31.049999
27.15 -18.450001 30.75
27.450001 -18.450001 30.75
27.15 -18.15 30.75
27.450001 -18.15 30.75
27.15 -18.15 31.049999
27.450001 -18.15 31.049999
27.75 -18.450001 30.15
28.049999 -18.450001 30.15
27.75 -18.450001 30.450001
28.049999 -18.450001 30.450001
27.75 -18.15 30.450001
28.35 -18.450001 30.15
28.65 -18.450001 30.15
28.65 -18.15 30.15
28.35 -18.450001 30.450001
28.65 -18.450001 30.450001
